# .PCD v0.7 - Point Cloud Data file format
VERSION 0.7
FIELDS x y z rgba
SIZE 4 4 4 4
TYPE F F F U
COUNT 1 1 1 1
WIDTH 1204
HEIGHT 1
VIEWPOINT 0 0 0 1 0 0 0
POINTS 1204
DATA ascii
-5.7484531 -6.4325285 2.05 4278190335
-5.7101512 -6.4003897 2.05 4278190335
-5.6718488 -6.3682499 2.05 4278190335
-5.6335468 -6.3361111 2.05 4278190335
-5.5952444 -6.3039713 2.05 4278190335
-5.556942 -6.2718315 2.05 4278190335
-5.51864 -6.2396927 2.05 4278190335
-5.4803376 -6.2075529 2.05 4278190335
-5.4420357 -6.1754141 2.05 4278190335
-6.9358225 -7.4288492 2.0999999 4278190335
-6.8975201 -7.3967104 2.0999999 4278190335
-6.8592176 -7.3645706 2.0999999 4278190335
-6.8209152 -7.3324313 2.0999999 4278190335
-6.7826138 -7.300292 2.0999999 4278190335
-6.7443113 -7.2681527 2.0999999 4278190335
-6.7060089 -7.2360134 2.0999999 4278190335
-6.6677065 -7.2038736 2.0999999 4278190335
-6.6294041 -7.1717348 2.0999999 4278190335
-6.5911026 -7.139595 2.0999999 4278190335
-6.5528002 -7.1074557 2.0999999 4278190335
-6.5144978 -7.0753164 2.0999999 4278190335
-6.4761953 -7.0431771 2.0999999 4278190335
-6.4378929 -7.0110378 2.0999999 4278190335
-6.3995914 -6.978898 2.0999999 4278190335
-6.361289 -6.9467587 2.0999999 4278190335
-6.3229866 -6.9146194 2.0999999 4278190335
-6.2846842 -6.8824801 2.0999999 4278190335
-6.2463822 -6.8503408 2.0999999 4278190335
-6.2080803 -6.8182015 2.0999999 4278190335
-6.1697779 -6.7860622 2.0999999 4278190335
-6.1314754 -6.7539225 2.0999999 4278190335
-6.0931735 -6.7217832 2.0999999 4278190335
-6.0548711 -6.6896439 2.0999999 4278190335
-6.0165691 -6.6575046 2.0999999 4278190335
-5.9782667 -6.6253653 2.0999999 4278190335
-5.9399643 -6.5932255 2.0999999 4278190335
-5.9016623 -6.5610867 2.0999999 4278190335
-5.8633599 -6.5289469 2.0999999 4278190335
-5.825058 -6.4968076 2.0999999 4278190335
-5.7867556 -6.4646683 2.0999999 4278190335
-5.7484531 -6.4325285 2.0999999 4278190335
-5.7101512 -6.4003897 2.0999999 4278190335
-5.6718488 -6.3682499 2.0999999 4278190335
-5.6335468 -6.3361111 2.0999999 4278190335
-5.5952444 -6.3039713 2.0999999 4278190335
-5.556942 -6.2718315 2.0999999 4278190335
-5.51864 -6.2396927 2.0999999 4278190335
-5.4803376 -6.2075529 2.0999999 4278190335
-5.4420357 -6.1754141 2.0999999 4278190335
-6.9358225 -7.4288492 2.1500001 4278190335
-6.8975201 -7.3967104 2.1500001 4278190335
-6.8592176 -7.3645706 2.1500001 4278190335
-6.8209152 -7.3324313 2.1500001 4278190335
-6.7826138 -7.300292 2.1500001 4278190335
-6.7443113 -7.2681527 2.1500001 4278190335
-6.7060089 -7.2360134 2.1500001 4278190335
-6.6677065 -7.2038736 2.1500001 4278190335
-6.6294041 -7.1717348 2.1500001 4278190335
-6.5911026 -7.139595 2.1500001 4278190335
-6.5528002 -7.1074557 2.1500001 4278190335
-6.5144978 -7.0753164 2.1500001 4278190335
-6.4761953 -7.0431771 2.1500001 4278190335
-6.4378929 -7.0110378 2.1500001 4278190335
-6.3995914 -6.978898 2.1500001 4278190335
-6.361289 -6.9467587 2.1500001 4278190335
-6.3229866 -6.9146194 2.1500001 4278190335
-6.2846842 -6.8824801 2.1500001 4278190335
-6.2463822 -6.8503408 2.1500001 4278190335
-6.2080803 -6.8182015 2.1500001 4278190335
-6.1697779 -6.7860622 2.1500001 4278190335
-6.1314754 -6.7539225 2.1500001 4278190335
-6.0931735 -6.7217832 2.1500001 4278190335
-6.0548711 -6.6896439 2.1500001 4278190335
-6.0165691 -6.6575046 2.1500001 4278190335
-5.9782667 -6.6253653 2.1500001 4278190335
-5.9399643 -6.5932255 2.1500001 4278190335
-5.9016623 -6.5610867 2.1500001 4278190335
-5.8633599 -6.5289469 2.1500001 4278190335
-5.825058 -6.4968076 2.1500001 4278190335
-5.7867556 -6.4646683 2.1500001 4278190335
-5.7484531 -6.4325285 2.1500001 4278190335
-5.7101512 -6.4003897 2.1500001 4278190335
-5.6718488 -6.3682499 2.1500001 4278190335
-5.6335468 -6.3361111 2.1500001 4278190335
-5.5952444 -6.3039713 2.1500001 4278190335
-5.556942 -6.2718315 2.1500001 4278190335
-5.51864 -6.2396927 2.1500001 4278190335
-5.4803376 -6.2075529 2.1500001 4278190335
-5.4420357 -6.1754141 2.1500001 4278190335
-6.9358225 -7.4288492 2.2 4278190335
-6.8975201 -7.3967104 2.2 4278190335
-6.8592176 -7.3645706 2.2 4278190335
-6.8209152 -7.3324313 2.2 4278190335
-6.7826138 -7.300292 2.2 4278190335
-6.7443113 -7.2681527 2.2 4278190335
-6.7060089 -7.2360134 2.2 4278190335
-6.6677065 -7.2038736 2.2 4278190335
-6.6294041 -7.1717348 2.2 4278190335
-6.5911026 -7.139595 2.2 4278190335
-6.5528002 -7.1074557 2.2 4278190335
-6.5144978 -7.0753164 2.2 4278190335
-6.4761953 -7.0431771 2.2 4278190335
-6.4378929 -7.0110378 2.2 4278190335
-6.3995914 -6.978898 2.2 4278190335
-6.361289 -6.9467587 2.2 4278190335
-6.3229866 -6.9146194 2.2 4278190335
-6.2846842 -6.8824801 2.2 4278190335
-6.2463822 -6.8503408 2.2 4278190335
-6.2080803 -6.8182015 2.2 4278190335
-6.1697779 -6.7860622 2.2 4278190335
-6.1314754 -6.7539225 2.2 4278190335
-6.0931735 -6.7217832 2.2 4278190335
-6.0548711 -6.6896439 2.2 4278190335
-6.0165691 -6.6575046 2.2 4278190335
-5.9782667 -6.6253653 2.2 4278190335
-5.9399643 -6.5932255 2.2 4278190335
-5.9016623 -6.5610867 2.2 4278190335
-5.8633599 -6.5289469 2.2 4278190335
-5.825058 -6.4968076 2.2 4278190335
-5.7867556 -6.4646683 2.2 4278190335
-5.7484531 -6.4325285 2.2 4278190335
-5.7101512 -6.4003897 2.2 4278190335
-5.6718488 -6.3682499 2.2 4278190335
-5.6335468 -6.3361111 2.2 4278190335
-5.5952444 -6.3039713 2.2 4278190335
-5.556942 -6.2718315 2.2 4278190335
-5.51864 -6.2396927 2.2 4278190335
-5.4803376 -6.2075529 2.2 4278190335
-5.4420357 -6.1754141 2.2 4278190335
-6.9358225 -7.4288492 2.25 4278190335
-6.8975201 -7.3967104 2.25 4278190335
-6.8592176 -7.3645706 2.25 4278190335
-6.8209152 -7.3324313 2.25 4278190335
-6.7826138 -7.300292 2.25 4278190335
-6.7443113 -7.2681527 2.25 4278190335
-6.7060089 -7.2360134 2.25 4278190335
-6.6677065 -7.2038736 2.25 4278190335
-6.6294041 -7.1717348 2.25 4278190335
-6.5911026 -7.139595 2.25 4278190335
-6.5528002 -7.1074557 2.25 4278190335
-6.5144978 -7.0753164 2.25 4278190335
-6.4761953 -7.0431771 2.25 4278190335
-6.4378929 -7.0110378 2.25 4278190335
-6.3995914 -6.978898 2.25 4278190335
-6.361289 -6.9467587 2.25 4278190335
-6.3229866 -6.9146194 2.25 4278190335
-6.2846842 -6.8824801 2.25 4278190335
-6.2463822 -6.8503408 2.25 4278190335
-6.2080803 -6.8182015 2.25 4278190335
-6.1697779 -6.7860622 2.25 4278190335
-6.1314754 -6.7539225 2.25 4278190335
-6.0931735 -6.7217832 2.25 4278190335
-6.0548711 -6.6896439 2.25 4278190335
-6.0165691 -6.6575046 2.25 4278190335
-5.9782667 -6.6253653 2.25 4278190335
-5.9399643 -6.5932255 2.25 4278190335
-5.9016623 -6.5610867 2.25 4278190335
-5.8633599 -6.5289469 2.25 4278190335
-5.825058 -6.4968076 2.25 4278190335
-5.7867556 -6.4646683 2.25 4278190335
-5.7484531 -6.4325285 2.25 4278190335
-5.7101512 -6.4003897 2.25 4278190335
-5.6718488 -6.3682499 2.25 4278190335
-5.6335468 -6.3361111 2.25 4278190335
-5.5952444 -6.3039713 2.25 4278190335
-5.556942 -6.2718315 2.25 4278190335
-5.51864 -6.2396927 2.25 4278190335
-5.4803376 -6.2075529 2.25 4278190335
-5.4420357 -6.1754141 2.25 4278190335
-6.9358225 -7.4288492 2.3 4278190335
-6.8975201 -7.3967104 2.3 4278190335
-6.8592176 -7.3645706 2.3 4278190335
-6.8209152 -7.3324313 2.3 4278190335
-6.7826138 -7.300292 2.3 4278190335
-6.7443113 -7.2681527 2.3 4278190335
-6.7060089 -7.2360134 2.3 4278190335
-6.6677065 -7.2038736 2.3 4278190335
-6.6294041 -7.1717348 2.3 4278190335
-6.5911026 -7.139595 2.3 4278190335
-6.5528002 -7.1074557 2.3 4278190335
-6.5144978 -7.0753164 2.3 4278190335
-6.4761953 -7.0431771 2.3 4278190335
-6.4378929 -7.0110378 2.3 4278190335
-6.3995914 -6.978898 2.3 4278190335
-6.361289 -6.9467587 2.3 4278190335
-6.3229866 -6.9146194 2.3 4278190335
-6.2846842 -6.8824801 2.3 4278190335
-6.2463822 -6.8503408 2.3 4278190335
-6.2080803 -6.8182015 2.3 4278190335
-6.1697779 -6.7860622 2.3 4278190335
-6.1314754 -6.7539225 2.3 4278190335
-6.0931735 -6.7217832 2.3 4278190335
-6.0548711 -6.6896439 2.3 4278190335
-6.0165691 -6.6575046 2.3 4278190335
-5.9782667 -6.6253653 2.3 4278190335
-5.9399643 -6.5932255 2.3 4278190335
-5.9016623 -6.5610867 2.3 4278190335
-5.8633599 -6.5289469 2.3 4278190335
-5.825058 -6.4968076 2.3 4278190335
-5.7867556 -6.4646683 2.3 4278190335
-5.7484531 -6.4325285 2.3 4278190335
-5.7101512 -6.4003897 2.3 4278190335
-5.6718488 -6.3682499 2.3 4278190335
-5.6335468 -6.3361111 2.3 4278190335
-5.5952444 -6.3039713 2.3 4278190335
-5.556942 -6.2718315 2.3 4278190335
-5.51864 -6.2396927 2.3 4278190335
-5.4803376 -6.2075529 2.3 4278190335
-5.4420357 -6.1754141 2.3 4278190335
-6.9358225 -7.4288492 2.3499999 4278190335
-6.8975201 -7.3967104 2.3499999 4278190335
-6.8592176 -7.3645706 2.3499999 4278190335
-6.8209152 -7.3324313 2.3499999 4278190335
-6.7826138 -7.300292 2.3499999 4278190335
-6.7443113 -7.2681527 2.3499999 4278190335
-6.7060089 -7.2360134 2.3499999 4278190335
-6.6677065 -7.2038736 2.3499999 4278190335
-6.6294041 -7.1717348 2.3499999 4278190335
-6.5911026 -7.139595 2.3499999 4278190335
-6.5528002 -7.1074557 2.3499999 4278190335
-6.5144978 -7.0753164 2.3499999 4278190335
-6.4761953 -7.0431771 2.3499999 4278190335
-6.4378929 -7.0110378 2.3499999 4278190335
-6.3995914 -6.978898 2.3499999 4278190335
-6.361289 -6.9467587 2.3499999 4278190335
-6.3229866 -6.9146194 2.3499999 4278190335
-6.2846842 -6.8824801 2.3499999 4278190335
-6.2463822 -6.8503408 2.3499999 4278190335
-6.2080803 -6.8182015 2.3499999 4278190335
-6.1697779 -6.7860622 2.3499999 4278190335
-6.1314754 -6.7539225 2.3499999 4278190335
-6.0931735 -6.7217832 2.3499999 4278190335
-6.0548711 -6.6896439 2.3499999 4278190335
-6.0165691 -6.6575046 2.3499999 4278190335
-5.9782667 -6.6253653 2.3499999 4278190335
-5.9399643 -6.5932255 2.3499999 4278190335
-5.9016623 -6.5610867 2.3499999 4278190335
-5.8633599 -6.5289469 2.3499999 4278190335
-5.825058 -6.4968076 2.3499999 4278190335
-5.7867556 -6.4646683 2.3499999 4278190335
-5.7484531 -6.4325285 2.3499999 4278190335
-5.7101512 -6.4003897 2.3499999 4278190335
-5.6718488 -6.3682499 2.3499999 4278190335
-5.6335468 -6.3361111 2.3499999 4278190335
-5.5952444 -6.3039713 2.3499999 4278190335
-5.556942 -6.2718315 2.3499999 4278190335
-5.51864 -6.2396927 2.3499999 4278190335
-5.4803376 -6.2075529 2.3499999 4278190335
-5.4420357 -6.1754141 2.3499999 4278190335
-6.9358225 -7.4288492 2.4000001 4278190335
-6.8975201 -7.3967104 2.4000001 4278190335
-6.8592176 -7.3645706 2.4000001 4278190335
-6.8209152 -7.3324313 2.4000001 4278190335
-6.7826138 -7.300292 2.4000001 4278190335
-6.7443113 -7.2681527 2.4000001 4278190335
-6.7060089 -7.2360134 2.4000001 4278190335
-6.6677065 -7.2038736 2.4000001 4278190335
-6.6294041 -7.1717348 2.4000001 4278190335
-6.5911026 -7.139595 2.4000001 4278190335
-6.5528002 -7.1074557 2.4000001 4278190335
-6.5144978 -7.0753164 2.4000001 4278190335
-6.4761953 -7.0431771 2.4000001 4278190335
-6.4378929 -7.0110378 2.4000001 4278190335
-6.3995914 -6.978898 2.4000001 4278190335
-6.361289 -6.9467587 2.4000001 4278190335
-6.3229866 -6.9146194 2.4000001 4278190335
-6.2846842 -6.8824801 2.4000001 4278190335
-6.2463822 -6.8503408 2.4000001 4278190335
-6.2080803 -6.8182015 2.4000001 4278190335
-6.1697779 -6.7860622 2.4000001 4278190335
-6.1314754 -6.7539225 2.4000001 4278190335
-6.0931735 -6.7217832 2.4000001 4278190335
-6.0548711 -6.6896439 2.4000001 4278190335
-6.0165691 -6.6575046 2.4000001 4278190335
-5.9782667 -6.6253653 2.4000001 4278190335
-5.9399643 -6.5932255 2.4000001 4278190335
-5.9016623 -6.5610867 2.4000001 4278190335
-5.8633599 -6.5289469 2.4000001 4278190335
-5.825058 -6.4968076 2.4000001 4278190335
-5.7867556 -6.4646683 2.4000001 4278190335
-5.7484531 -6.4325285 2.4000001 4278190335
-5.7101512 -6.4003897 2.4000001 4278190335
-5.6718488 -6.3682499 2.4000001 4278190335
-5.6335468 -6.3361111 2.4000001 4278190335
-5.5952444 -6.3039713 2.4000001 4278190335
-5.556942 -6.2718315 2.4000001 4278190335
-5.51864 -6.2396927 2.4000001 4278190335
-5.4803376 -6.2075529 2.4000001 4278190335
-5.4420357 -6.1754141 2.4000001 4278190335
-6.9358225 -7.4288492 2.45 4278190335
-6.8975201 -7.3967104 2.45 4278190335
-6.8592176 -7.3645706 2.45 4278190335
-6.8209152 -7.3324313 2.45 4278190335
-6.7826138 -7.300292 2.45 4278190335
-6.7443113 -7.2681527 2.45 4278190335
-6.7060089 -7.2360134 2.45 4278190335
-6.6677065 -7.2038736 2.45 4278190335
-6.6294041 -7.1717348 2.45 4278190335
-6.5911026 -7.139595 2.45 4278190335
-6.5528002 -7.1074557 2.45 4278190335
-6.5144978 -7.0753164 2.45 4278190335
-6.4761953 -7.0431771 2.45 4278190335
-6.4378929 -7.0110378 2.45 4278190335
-6.3995914 -6.978898 2.45 4278190335
-6.361289 -6.9467587 2.45 4278190335
-6.3229866 -6.9146194 2.45 4278190335
-6.2846842 -6.8824801 2.45 4278190335
-6.2463822 -6.8503408 2.45 4278190335
-6.2080803 -6.8182015 2.45 4278190335
-6.1697779 -6.7860622 2.45 4278190335
-6.1314754 -6.7539225 2.45 4278190335
-6.0931735 -6.7217832 2.45 4278190335
-6.0548711 -6.6896439 2.45 4278190335
-6.0165691 -6.6575046 2.45 4278190335
-5.9782667 -6.6253653 2.45 4278190335
-5.9399643 -6.5932255 2.45 4278190335
-5.9016623 -6.5610867 2.45 4278190335
-5.8633599 -6.5289469 2.45 4278190335
-5.825058 -6.4968076 2.45 4278190335
-5.7867556 -6.4646683 2.45 4278190335
-5.7484531 -6.4325285 2.45 4278190335
-5.7101512 -6.4003897 2.45 4278190335
-5.6718488 -6.3682499 2.45 4278190335
-5.6335468 -6.3361111 2.45 4278190335
-5.5952444 -6.3039713 2.45 4278190335
-5.556942 -6.2718315 2.45 4278190335
-5.51864 -6.2396927 2.45 4278190335
-5.4803376 -6.2075529 2.45 4278190335
-5.4420357 -6.1754141 2.45 4278190335
-6.1889291 -6.8021317 1.475 4294902015
-6.1760731 -6.8174524 1.475 4294902015
-6.1632171 -6.8327732 1.475 4294902015
-6.1503615 -6.848094 1.475 4294902015
-6.1375055 -6.8634152 1.475 4294902015
-6.12465 -6.878736 1.475 4294902015
-6.111794 -6.8940568 1.475 4294902015
-6.098938 -6.9093776 1.475 4294902015
-6.0860825 -6.9246984 1.475 4294902015
-6.0732265 -6.9400191 1.475 4294902015
-6.0603709 -6.9553399 1.475 4294902015
-6.0475149 -6.9706607 1.475 4294902015
-6.0346589 -6.9859815 1.475 4294902015
-6.0218034 -7.0013027 1.475 4294902015
-6.0089474 -7.0166235 1.475 4294902015
-5.9960918 -7.0319443 1.475 4294902015
-5.9832358 -7.0472651 1.475 4294902015
-5.9703798 -7.0625858 1.475 4294902015
-5.9575243 -7.0779066 1.475 4294902015
-5.9446683 -7.0932274 1.475 4294902015
-5.9318128 -7.1085482 1.475 4294902015
-5.9189568 -7.1238689 1.475 4294902015
-5.9061007 -7.1391902 1.475 4294902015
-5.8932452 -7.154511 1.475 4294902015
-5.8803892 -7.1698318 1.475 4294902015
-5.8675337 -7.1851525 1.475 4294902015
-7.4288492 -6.9358225 0.5 4278190335
-7.3967104 -6.8975201 0.5 4278190335
-7.3645706 -6.8592176 0.5 4278190335
-7.3324313 -6.8209152 0.5 4278190335
-7.300292 -6.7826138 0.5 4278190335
-7.2681527 -6.7443113 0.5 4278190335
-7.2360134 -6.7060089 0.5 4278190335
-7.2038736 -6.6677065 0.5 4278190335
-7.1717348 -6.6294041 0.5 4278190335
-7.139595 -6.5911026 0.5 4278190335
-7.1074557 -6.5528002 0.5 4278190335
-7.0753164 -6.5144978 0.5 4278190335
-7.0431771 -6.4761953 0.5 4278190335
-7.0110378 -6.4378929 0.5 4278190335
-6.978898 -6.3995914 0.5 4278190335
-6.9467587 -6.361289 0.5 4278190335
-6.9146194 -6.3229866 0.5 4278190335
-6.8824801 -6.2846842 0.5 4278190335
-6.8503408 -6.2463822 0.5 4278190335
-6.8182015 -6.2080803 0.5 4278190335
-6.7860622 -6.1697779 0.5 4278190335
-6.7539225 -6.1314754 0.5 4278190335
-6.7217832 -6.0931735 0.5 4278190335
-6.6896439 -6.0548711 0.5 4278190335
-6.6575046 -6.0165691 0.5 4278190335
-6.6253653 -5.9782667 0.5 4278190335
-6.5932255 -5.9399643 0.5 4278190335
-6.5610867 -5.9016623 0.5 4278190335
-6.5289469 -5.8633599 0.5 4278190335
-6.4968076 -5.825058 0.5 4278190335
-6.4646683 -5.7867556 0.5 4278190335
-6.4325285 -5.7484531 0.5 4278190335
-6.4003897 -5.7101512 0.5 4278190335
-6.3682499 -5.6718488 0.5 4278190335
-6.3361111 -5.6335468 0.5 4278190335
-6.3039713 -5.5952444 0.5 4278190335
-6.2718315 -5.556942 0.5 4278190335
-6.2396927 -5.51864 0.5 4278190335
-6.2075529 -5.4803376 0.5 4278190335
-6.1754141 -5.4420357 0.5 4278190335
-7.4288492 -6.9358225 0.55000001 4278190335
-7.3967104 -6.8975201 0.55000001 4278190335
-7.3645706 -6.8592176 0.55000001 4278190335
-7.3324313 -6.8209152 0.55000001 4278190335
-7.300292 -6.7826138 0.55000001 4278190335
-7.2681527 -6.7443113 0.55000001 4278190335
-7.2360134 -6.7060089 0.55000001 4278190335
-7.2038736 -6.6677065 0.55000001 4278190335
-7.1717348 -6.6294041 0.55000001 4278190335
-7.139595 -6.5911026 0.55000001 4278190335
-7.1074557 -6.5528002 0.55000001 4278190335
-7.0753164 -6.5144978 0.55000001 4278190335
-7.0431771 -6.4761953 0.55000001 4278190335
-7.0110378 -6.4378929 0.55000001 4278190335
-6.978898 -6.3995914 0.55000001 4278190335
-6.9467587 -6.361289 0.55000001 4278190335
-6.9146194 -6.3229866 0.55000001 4278190335
-6.8824801 -6.2846842 0.55000001 4278190335
-6.8503408 -6.2463822 0.55000001 4278190335
-6.8182015 -6.2080803 0.55000001 4278190335
-6.7860622 -6.1697779 0.55000001 4278190335
-6.7539225 -6.1314754 0.55000001 4278190335
-6.7217832 -6.0931735 0.55000001 4278190335
-6.6896439 -6.0548711 0.55000001 4278190335
-6.6575046 -6.0165691 0.55000001 4278190335
-6.6253653 -5.9782667 0.55000001 4278190335
-6.5932255 -5.9399643 0.55000001 4278190335
-6.5610867 -5.9016623 0.55000001 4278190335
-6.5289469 -5.8633599 0.55000001 4278190335
-6.4968076 -5.825058 0.55000001 4278190335
-6.4646683 -5.7867556 0.55000001 4278190335
-6.4325285 -5.7484531 0.55000001 4278190335
-6.4003897 -5.7101512 0.55000001 4278190335
-6.3682499 -5.6718488 0.55000001 4278190335
-6.3361111 -5.6335468 0.55000001 4278190335
-6.3039713 -5.5952444 0.55000001 4278190335
-6.2718315 -5.556942 0.55000001 4278190335
-6.2396927 -5.51864 0.55000001 4278190335
-6.2075529 -5.4803376 0.55000001 4278190335
-6.1754141 -5.4420357 0.55000001 4278190335
-7.4288492 -6.9358225 0.60000002 4278190335
-7.3967104 -6.8975201 0.60000002 4278190335
-7.3645706 -6.8592176 0.60000002 4278190335
-7.3324313 -6.8209152 0.60000002 4278190335
-7.300292 -6.7826138 0.60000002 4278190335
-7.2681527 -6.7443113 0.60000002 4278190335
-7.2360134 -6.7060089 0.60000002 4278190335
-7.2038736 -6.6677065 0.60000002 4278190335
-7.1717348 -6.6294041 0.60000002 4278190335
-7.139595 -6.5911026 0.60000002 4278190335
-7.1074557 -6.5528002 0.60000002 4278190335
-7.0753164 -6.5144978 0.60000002 4278190335
-7.0431771 -6.4761953 0.60000002 4278190335
-7.0110378 -6.4378929 0.60000002 4278190335
-6.978898 -6.3995914 0.60000002 4278190335
-6.9467587 -6.361289 0.60000002 4278190335
-6.9146194 -6.3229866 0.60000002 4278190335
-6.8824801 -6.2846842 0.60000002 4278190335
-6.8503408 -6.2463822 0.60000002 4278190335
-6.8182015 -6.2080803 0.60000002 4278190335
-6.7860622 -6.1697779 0.60000002 4278190335
-6.7539225 -6.1314754 0.60000002 4278190335
-6.7217832 -6.0931735 0.60000002 4278190335
-6.6896439 -6.0548711 0.60000002 4278190335
-6.6575046 -6.0165691 0.60000002 4278190335
-6.6253653 -5.9782667 0.60000002 4278190335
-6.5932255 -5.9399643 0.60000002 4278190335
-6.5610867 -5.9016623 0.60000002 4278190335
-6.5289469 -5.8633599 0.60000002 4278190335
-6.4968076 -5.825058 0.60000002 4278190335
-6.4646683 -5.7867556 0.60000002 4278190335
-6.4325285 -5.7484531 0.60000002 4278190335
-6.4003897 -5.7101512 0.60000002 4278190335
-6.3682499 -5.6718488 0.60000002 4278190335
-6.3361111 -5.6335468 0.60000002 4278190335
-6.3039713 -5.5952444 0.60000002 4278190335
-6.2718315 -5.556942 0.60000002 4278190335
-6.2396927 -5.51864 0.60000002 4278190335
-6.2075529 -5.4803376 0.60000002 4278190335
-6.1754141 -5.4420357 0.60000002 4278190335
-7.4288492 -6.9358225 0.64999998 4278190335
-7.3967104 -6.8975201 0.64999998 4278190335
-7.3645706 -6.8592176 0.64999998 4278190335
-7.3324313 -6.8209152 0.64999998 4278190335
-7.300292 -6.7826138 0.64999998 4278190335
-7.2681527 -6.7443113 0.64999998 4278190335
-7.2360134 -6.7060089 0.64999998 4278190335
-7.2038736 -6.6677065 0.64999998 4278190335
-7.1717348 -6.6294041 0.64999998 4278190335
-7.139595 -6.5911026 0.64999998 4278190335
-7.1074557 -6.5528002 0.64999998 4278190335
-7.0753164 -6.5144978 0.64999998 4278190335
-7.0431771 -6.4761953 0.64999998 4278190335
-7.0110378 -6.4378929 0.64999998 4278190335
-6.978898 -6.3995914 0.64999998 4278190335
-6.9467587 -6.361289 0.64999998 4278190335
-6.9146194 -6.3229866 0.64999998 4278190335
-6.8824801 -6.2846842 0.64999998 4278190335
-6.8503408 -6.2463822 0.64999998 4278190335
-6.8182015 -6.2080803 0.64999998 4278190335
-6.7860622 -6.1697779 0.64999998 4278190335
-6.7539225 -6.1314754 0.64999998 4278190335
-6.7217832 -6.0931735 0.64999998 4278190335
-6.6896439 -6.0548711 0.64999998 4278190335
-6.6575046 -6.0165691 0.64999998 4278190335
-6.6253653 -5.9782667 0.64999998 4278190335
-6.5932255 -5.9399643 0.64999998 4278190335
-6.5610867 -5.9016623 0.64999998 4278190335
-6.5289469 -5.8633599 0.64999998 4278190335
-6.4968076 -5.825058 0.64999998 4278190335
-6.4646683 -5.7867556 0.64999998 4278190335
-6.4325285 -5.7484531 0.64999998 4278190335
-6.4003897 -5.7101512 0.64999998 4278190335
-6.3682499 -5.6718488 0.64999998 4278190335
-6.3361111 -5.6335468 0.64999998 4278190335
-6.3039713 -5.5952444 0.64999998 4278190335
-6.2718315 -5.556942 0.64999998 4278190335
-6.2396927 -5.51864 0.64999998 4278190335
-6.2075529 -5.4803376 0.64999998 4278190335
-6.1754141 -5.4420357 0.64999998 4278190335
-7.4288492 -6.9358225 0.69999999 4278190335
-7.3967104 -6.8975201 0.69999999 4278190335
-7.3645706 -6.8592176 0.69999999 4278190335
-7.3324313 -6.8209152 0.69999999 4278190335
-7.300292 -6.7826138 0.69999999 4278190335
-7.2681527 -6.7443113 0.69999999 4278190335
-7.2360134 -6.7060089 0.69999999 4278190335
-7.2038736 -6.6677065 0.69999999 4278190335
-7.1717348 -6.6294041 0.69999999 4278190335
-7.139595 -6.5911026 0.69999999 4278190335
-7.1074557 -6.5528002 0.69999999 4278190335
-7.0753164 -6.5144978 0.69999999 4278190335
-7.0431771 -6.4761953 0.69999999 4278190335
-7.0110378 -6.4378929 0.69999999 4278190335
-6.978898 -6.3995914 0.69999999 4278190335
-6.9467587 -6.361289 0.69999999 4278190335
-6.9146194 -6.3229866 0.69999999 4278190335
-6.8824801 -6.2846842 0.69999999 4278190335
-6.8503408 -6.2463822 0.69999999 4278190335
-6.8182015 -6.2080803 0.69999999 4278190335
-6.7860622 -6.1697779 0.69999999 4278190335
-6.7539225 -6.1314754 0.69999999 4278190335
-6.7217832 -6.0931735 0.69999999 4278190335
-6.6896439 -6.0548711 0.69999999 4278190335
-6.6575046 -6.0165691 0.69999999 4278190335
-6.6253653 -5.9782667 0.69999999 4278190335
-6.5932255 -5.9399643 0.69999999 4278190335
-6.5610867 -5.9016623 0.69999999 4278190335
-6.5289469 -5.8633599 0.69999999 4278190335
-6.4968076 -5.825058 0.69999999 4278190335
-6.4646683 -5.7867556 0.69999999 4278190335
-6.4325285 -5.7484531 0.69999999 4278190335
-6.4003897 -5.7101512 0.69999999 4278190335
-6.3682499 -5.6718488 0.69999999 4278190335
-6.3361111 -5.6335468 0.69999999 4278190335
-6.3039713 -5.5952444 0.69999999 4278190335
-6.2718315 -5.556942 0.69999999 4278190335
-6.2396927 -5.51864 0.69999999 4278190335
-6.2075529 -5.4803376 0.69999999 4278190335
-6.1754141 -5.4420357 0.69999999 4278190335
-7.4288492 -6.9358225 0.75 4278190335
-7.3967104 -6.8975201 0.75 4278190335
-7.3645706 -6.8592176 0.75 4278190335
-7.3324313 -6.8209152 0.75 4278190335
-7.300292 -6.7826138 0.75 4278190335
-7.2681527 -6.7443113 0.75 4278190335
-7.2360134 -6.7060089 0.75 4278190335
-7.2038736 -6.6677065 0.75 4278190335
-7.1717348 -6.6294041 0.75 4278190335
-7.139595 -6.5911026 0.75 4278190335
-7.1074557 -6.5528002 0.75 4278190335
-7.0753164 -6.5144978 0.75 4278190335
-7.0431771 -6.4761953 0.75 4278190335
-7.0110378 -6.4378929 0.75 4278190335
-6.978898 -6.3995914 0.75 4278190335
-6.9467587 -6.361289 0.75 4278190335
-6.9146194 -6.3229866 0.75 4278190335
-6.8824801 -6.2846842 0.75 4278190335
-6.8503408 -6.2463822 0.75 4278190335
-6.8182015 -6.2080803 0.75 4278190335
-6.7860622 -6.1697779 0.75 4278190335
-6.7539225 -6.1314754 0.75 4278190335
-6.7217832 -6.0931735 0.75 4278190335
-6.6896439 -6.0548711 0.75 4278190335
-6.6575046 -6.0165691 0.75 4278190335
-6.6253653 -5.9782667 0.75 4278190335
-6.5932255 -5.9399643 0.75 4278190335
-6.5610867 -5.9016623 0.75 4278190335
-6.5289469 -5.8633599 0.75 4278190335
-6.4968076 -5.825058 0.75 4278190335
-6.4646683 -5.7867556 0.75 4278190335
-6.4325285 -5.7484531 0.75 4278190335
-6.4003897 -5.7101512 0.75 4278190335
-6.3682499 -5.6718488 0.75 4278190335
-6.3361111 -5.6335468 0.75 4278190335
-6.3039713 -5.5952444 0.75 4278190335
-6.2718315 -5.556942 0.75 4278190335
-6.2396927 -5.51864 0.75 4278190335
-6.2075529 -5.4803376 0.75 4278190335
-6.1754141 -5.4420357 0.75 4278190335
-7.4288492 -6.9358225 0.80000001 4278190335
-7.3967104 -6.8975201 0.80000001 4278190335
-7.3645706 -6.8592176 0.80000001 4278190335
-7.3324313 -6.8209152 0.80000001 4278190335
-7.300292 -6.7826138 0.80000001 4278190335
-7.2681527 -6.7443113 0.80000001 4278190335
-7.2360134 -6.7060089 0.80000001 4278190335
-7.2038736 -6.6677065 0.80000001 4278190335
-7.1717348 -6.6294041 0.80000001 4278190335
-7.139595 -6.5911026 0.80000001 4278190335
-7.1074557 -6.5528002 0.80000001 4278190335
-7.0753164 -6.5144978 0.80000001 4278190335
-7.0431771 -6.4761953 0.80000001 4278190335
-7.0110378 -6.4378929 0.80000001 4278190335
-6.978898 -6.3995914 0.80000001 4278190335
-6.9467587 -6.361289 0.80000001 4278190335
-6.9146194 -6.3229866 0.80000001 4278190335
-6.8824801 -6.2846842 0.80000001 4278190335
-6.8503408 -6.2463822 0.80000001 4278190335
-6.8182015 -6.2080803 0.80000001 4278190335
-6.7860622 -6.1697779 0.80000001 4278190335
-6.7539225 -6.1314754 0.80000001 4278190335
-6.7217832 -6.0931735 0.80000001 4278190335
-6.6896439 -6.0548711 0.80000001 4278190335
-6.6575046 -6.0165691 0.80000001 4278190335
-6.6253653 -5.9782667 0.80000001 4278190335
-6.5932255 -5.9399643 0.80000001 4278190335
-6.5610867 -5.9016623 0.80000001 4278190335
-6.5289469 -5.8633599 0.80000001 4278190335
-6.4968076 -5.825058 0.80000001 4278190335
-6.4646683 -5.7867556 0.80000001 4278190335
-6.4325285 -5.7484531 0.80000001 4278190335
-6.4003897 -5.7101512 0.80000001 4278190335
-6.3682499 -5.6718488 0.80000001 4278190335
-6.3361111 -5.6335468 0.80000001 4278190335
-6.3039713 -5.5952444 0.80000001 4278190335
-6.2718315 -5.556942 0.80000001 4278190335
-6.2396927 -5.51864 0.80000001 4278190335
-6.2075529 -5.4803376 0.80000001 4278190335
-6.1754141 -5.4420357 0.80000001 4278190335
-7.4288492 -6.9358225 0.85000002 4278190335
-7.3967104 -6.8975201 0.85000002 4278190335
-7.3645706 -6.8592176 0.85000002 4278190335
-7.3324313 -6.8209152 0.85000002 4278190335
-7.300292 -6.7826138 0.85000002 4278190335
-7.2681527 -6.7443113 0.85000002 4278190335
-7.2360134 -6.7060089 0.85000002 4278190335
-7.2038736 -6.6677065 0.85000002 4278190335
-7.1717348 -6.6294041 0.85000002 4278190335
-7.139595 -6.5911026 0.85000002 4278190335
-7.1074557 -6.5528002 0.85000002 4278190335
-7.0753164 -6.5144978 0.85000002 4278190335
-7.0431771 -6.4761953 0.85000002 4278190335
-7.0110378 -6.4378929 0.85000002 4278190335
-6.978898 -6.3995914 0.85000002 4278190335
-6.9467587 -6.361289 0.85000002 4278190335
-6.9146194 -6.3229866 0.85000002 4278190335
-6.8824801 -6.2846842 0.85000002 4278190335
-6.8503408 -6.2463822 0.85000002 4278190335
-6.8182015 -6.2080803 0.85000002 4278190335
-6.7860622 -6.1697779 0.85000002 4278190335
-6.7539225 -6.1314754 0.85000002 4278190335
-6.7217832 -6.0931735 0.85000002 4278190335
-6.6896439 -6.0548711 0.85000002 4278190335
-6.6575046 -6.0165691 0.85000002 4278190335
-6.6253653 -5.9782667 0.85000002 4278190335
-6.5932255 -5.9399643 0.85000002 4278190335
-6.5610867 -5.9016623 0.85000002 4278190335
-6.5289469 -5.8633599 0.85000002 4278190335
-6.4968076 -5.825058 0.85000002 4278190335
-6.4646683 -5.7867556 0.85000002 4278190335
-6.4325285 -5.7484531 0.85000002 4278190335
-6.4003897 -5.7101512 0.85000002 4278190335
-6.3682499 -5.6718488 0.85000002 4278190335
-6.3361111 -5.6335468 0.85000002 4278190335
-6.3039713 -5.5952444 0.85000002 4278190335
-6.2718315 -5.556942 0.85000002 4278190335
-6.2396927 -5.51864 0.85000002 4278190335
-6.2075529 -5.4803376 0.85000002 4278190335
-6.1754141 -5.4420357 0.85000002 4278190335
-7.4288492 -6.9358225 0.89999998 4278190335
-7.3967104 -6.8975201 0.89999998 4278190335
-7.3645706 -6.8592176 0.89999998 4278190335
-7.3324313 -6.8209152 0.89999998 4278190335
-7.300292 -6.7826138 0.89999998 4278190335
-7.2681527 -6.7443113 0.89999998 4278190335
-7.2360134 -6.7060089 0.89999998 4278190335
-7.2038736 -6.6677065 0.89999998 4278190335
-7.1717348 -6.6294041 0.89999998 4278190335
-7.139595 -6.5911026 0.89999998 4278190335
-7.1074557 -6.5528002 0.89999998 4278190335
-7.0753164 -6.5144978 0.89999998 4278190335
-7.0431771 -6.4761953 0.89999998 4278190335
-7.0110378 -6.4378929 0.89999998 4278190335
-6.978898 -6.3995914 0.89999998 4278190335
-6.9467587 -6.361289 0.89999998 4278190335
-6.9146194 -6.3229866 0.89999998 4278190335
-6.8824801 -6.2846842 0.89999998 4278190335
-6.8503408 -6.2463822 0.89999998 4278190335
-6.8182015 -6.2080803 0.89999998 4278190335
-6.7860622 -6.1697779 0.89999998 4278190335
-6.7539225 -6.1314754 0.89999998 4278190335
-6.7217832 -6.0931735 0.89999998 4278190335
-6.6896439 -6.0548711 0.89999998 4278190335
-6.6575046 -6.0165691 0.89999998 4278190335
-6.6253653 -5.9782667 0.89999998 4278190335
-6.5932255 -5.9399643 0.89999998 4278190335
-6.5610867 -5.9016623 0.89999998 4278190335
-6.5289469 -5.8633599 0.89999998 4278190335
-6.4968076 -5.825058 0.89999998 4278190335
-6.4646683 -5.7867556 0.89999998 4278190335
-6.4325285 -5.7484531 0.89999998 4278190335
-6.4003897 -5.7101512 0.89999998 4278190335
-6.3682499 -5.6718488 0.89999998 4278190335
-6.3361111 -5.6335468 0.89999998 4278190335
-6.3039713 -5.5952444 0.89999998 4278190335
-6.2718315 -5.556942 0.89999998 4278190335
-6.2396927 -5.51864 0.89999998 4278190335
-6.2075529 -5.4803376 0.89999998 4278190335
-6.1754141 -5.4420357 0.89999998 4278190335
-7.4288492 -6.9358225 0.94999999 4278190335
-7.3967104 -6.8975201 0.94999999 4278190335
-7.3645706 -6.8592176 0.94999999 4278190335
-7.3324313 -6.8209152 0.94999999 4278190335
-7.300292 -6.7826138 0.94999999 4278190335
-7.2681527 -6.7443113 0.94999999 4278190335
-7.2360134 -6.7060089 0.94999999 4278190335
-7.2038736 -6.6677065 0.94999999 4278190335
-7.1717348 -6.6294041 0.94999999 4278190335
-7.139595 -6.5911026 0.94999999 4278190335
-7.1074557 -6.5528002 0.94999999 4278190335
-7.0753164 -6.5144978 0.94999999 4278190335
-7.0431771 -6.4761953 0.94999999 4278190335
-7.0110378 -6.4378929 0.94999999 4278190335
-6.978898 -6.3995914 0.94999999 4278190335
-6.9467587 -6.361289 0.94999999 4278190335
-6.9146194 -6.3229866 0.94999999 4278190335
-6.8824801 -6.2846842 0.94999999 4278190335
-6.8503408 -6.2463822 0.94999999 4278190335
-6.8182015 -6.2080803 0.94999999 4278190335
-6.7860622 -6.1697779 0.94999999 4278190335
-6.7539225 -6.1314754 0.94999999 4278190335
-6.7217832 -6.0931735 0.94999999 4278190335
-6.6896439 -6.0548711 0.94999999 4278190335
-6.6575046 -6.0165691 0.94999999 4278190335
-6.6253653 -5.9782667 0.94999999 4278190335
-6.5932255 -5.9399643 0.94999999 4278190335
-6.5610867 -5.9016623 0.94999999 4278190335
-6.5289469 -5.8633599 0.94999999 4278190335
-6.4968076 -5.825058 0.94999999 4278190335
-6.4646683 -5.7867556 0.94999999 4278190335
-6.4325285 -5.7484531 0.94999999 4278190335
-6.4003897 -5.7101512 0.94999999 4278190335
-6.3682499 -5.6718488 0.94999999 4278190335
-6.3361111 -5.6335468 0.94999999 4278190335
-6.3039713 -5.5952444 0.94999999 4278190335
-6.2718315 -5.556942 0.94999999 4278190335
-6.2396927 -5.51864 0.94999999 4278190335
-6.2075529 -5.4803376 0.94999999 4278190335
-6.1754141 -5.4420357 0.94999999 4278190335
-7.4288492 -6.9358225 1 4278190335
-7.3967104 -6.8975201 1 4278190335
-7.3645706 -6.8592176 1 4278190335
-7.3324313 -6.8209152 1 4278190335
-7.300292 -6.7826138 1 4278190335
-7.2681527 -6.7443113 1 4278190335
-7.2360134 -6.7060089 1 4278190335
-7.2038736 -6.6677065 1 4278190335
-7.1717348 -6.6294041 1 4278190335
-7.139595 -6.5911026 1 4278190335
-7.1074557 -6.5528002 1 4278190335
-7.0753164 -6.5144978 1 4278190335
-7.0431771 -6.4761953 1 4278190335
-7.0110378 -6.4378929 1 4278190335
-6.978898 -6.3995914 1 4278190335
-6.9467587 -6.361289 1 4278190335
-6.9146194 -6.3229866 1 4278190335
-6.8824801 -6.2846842 1 4278190335
-6.8503408 -6.2463822 1 4278190335
-6.8182015 -6.2080803 1 4278190335
-6.7860622 -6.1697779 1 4278190335
-6.7539225 -6.1314754 1 4278190335
-6.7217832 -6.0931735 1 4278190335
-6.6896439 -6.0548711 1 4278190335
-6.6575046 -6.0165691 1 4278190335
-6.6253653 -5.9782667 1 4278190335
-6.5932255 -5.9399643 1 4278190335
-6.5610867 -5.9016623 1 4278190335
-6.5289469 -5.8633599 1 4278190335
-6.4968076 -5.825058 1 4278190335
-6.4646683 -5.7867556 1 4278190335
-6.4325285 -5.7484531 1 4278190335
-6.4003897 -5.7101512 1 4278190335
-6.3682499 -5.6718488 1 4278190335
-6.3361111 -5.6335468 1 4278190335
-6.3039713 -5.5952444 1 4278190335
-6.2718315 -5.556942 1 4278190335
-6.2396927 -5.51864 1 4278190335
-6.2075529 -5.4803376 1 4278190335
-6.1754141 -5.4420357 1 4278190335
-7.4288492 -6.9358225 1.05 4278190335
-7.3967104 -6.8975201 1.05 4278190335
-7.3645706 -6.8592176 1.05 4278190335
-7.3324313 -6.8209152 1.05 4278190335
-7.300292 -6.7826138 1.05 4278190335
-7.2681527 -6.7443113 1.05 4278190335
-7.2360134 -6.7060089 1.05 4278190335
-7.2038736 -6.6677065 1.05 4278190335
-7.1717348 -6.6294041 1.05 4278190335
-7.139595 -6.5911026 1.05 4278190335
-7.1074557 -6.5528002 1.05 4278190335
-7.0753164 -6.5144978 1.05 4278190335
-7.0431771 -6.4761953 1.05 4278190335
-7.0110378 -6.4378929 1.05 4278190335
-6.978898 -6.3995914 1.05 4278190335
-6.9467587 -6.361289 1.05 4278190335
-6.9146194 -6.3229866 1.05 4278190335
-6.8824801 -6.2846842 1.05 4278190335
-6.8503408 -6.2463822 1.05 4278190335
-6.8182015 -6.2080803 1.05 4278190335
-6.7860622 -6.1697779 1.05 4278190335
-6.7539225 -6.1314754 1.05 4278190335
-6.7217832 -6.0931735 1.05 4278190335
-6.6896439 -6.0548711 1.05 4278190335
-6.6575046 -6.0165691 1.05 4278190335
-6.6253653 -5.9782667 1.05 4278190335
-6.5932255 -5.9399643 1.05 4278190335
-6.5610867 -5.9016623 1.05 4278190335
-6.5289469 -5.8633599 1.05 4278190335
-6.4968076 -5.825058 1.05 4278190335
-6.4646683 -5.7867556 1.05 4278190335
-6.4325285 -5.7484531 1.05 4278190335
-6.4003897 -5.7101512 1.05 4278190335
-6.3682499 -5.6718488 1.05 4278190335
-6.3361111 -5.6335468 1.05 4278190335
-6.3039713 -5.5952444 1.05 4278190335
-6.2718315 -5.556942 1.05 4278190335
-6.2396927 -5.51864 1.05 4278190335
-6.2075529 -5.4803376 1.05 4278190335
-6.1754141 -5.4420357 1.05 4278190335
-7.4288492 -6.9358225 1.1 4278190335
-7.3967104 -6.8975201 1.1 4278190335
-7.3645706 -6.8592176 1.1 4278190335
-7.3324313 -6.8209152 1.1 4278190335
-7.300292 -6.7826138 1.1 4278190335
-7.2681527 -6.7443113 1.1 4278190335
-7.2360134 -6.7060089 1.1 4278190335
-7.2038736 -6.6677065 1.1 4278190335
-7.1717348 -6.6294041 1.1 4278190335
-7.139595 -6.5911026 1.1 4278190335
-7.1074557 -6.5528002 1.1 4278190335
-7.0753164 -6.5144978 1.1 4278190335
-7.0431771 -6.4761953 1.1 4278190335
-7.0110378 -6.4378929 1.1 4278190335
-6.978898 -6.3995914 1.1 4278190335
-6.9467587 -6.361289 1.1 4278190335
-6.9146194 -6.3229866 1.1 4278190335
-6.8824801 -6.2846842 1.1 4278190335
-6.8503408 -6.2463822 1.1 4278190335
-6.8182015 -6.2080803 1.1 4278190335
-6.7860622 -6.1697779 1.1 4278190335
-6.7539225 -6.1314754 1.1 4278190335
-6.7217832 -6.0931735 1.1 4278190335
-6.6896439 -6.0548711 1.1 4278190335
-6.6575046 -6.0165691 1.1 4278190335
-6.6253653 -5.9782667 1.1 4278190335
-6.5932255 -5.9399643 1.1 4278190335
-6.5610867 -5.9016623 1.1 4278190335
-6.5289469 -5.8633599 1.1 4278190335
-6.4968076 -5.825058 1.1 4278190335
-6.4646683 -5.7867556 1.1 4278190335
-6.4325285 -5.7484531 1.1 4278190335
-6.4003897 -5.7101512 1.1 4278190335
-6.3682499 -5.6718488 1.1 4278190335
-6.3361111 -5.6335468 1.1 4278190335
-6.3039713 -5.5952444 1.1 4278190335
-6.2718315 -5.556942 1.1 4278190335
-6.2396927 -5.51864 1.1 4278190335
-6.2075529 -5.4803376 1.1 4278190335
-6.1754141 -5.4420357 1.1 4278190335
-7.4288492 -6.9358225 1.15 4278190335
-7.3967104 -6.8975201 1.15 4278190335
-7.3645706 -6.8592176 1.15 4278190335
-7.3324313 -6.8209152 1.15 4278190335
-7.300292 -6.7826138 1.15 4278190335
-7.2681527 -6.7443113 1.15 4278190335
-7.2360134 -6.7060089 1.15 4278190335
-7.2038736 -6.6677065 1.15 4278190335
-7.1717348 -6.6294041 1.15 4278190335
-7.139595 -6.5911026 1.15 4278190335
-7.1074557 -6.5528002 1.15 4278190335
-7.0753164 -6.5144978 1.15 4278190335
-7.0431771 -6.4761953 1.15 4278190335
-7.0110378 -6.4378929 1.15 4278190335
-6.978898 -6.3995914 1.15 4278190335
-6.9467587 -6.361289 1.15 4278190335
-6.9146194 -6.3229866 1.15 4278190335
-6.8824801 -6.2846842 1.15 4278190335
-6.8503408 -6.2463822 1.15 4278190335
-6.8182015 -6.2080803 1.15 4278190335
-6.7860622 -6.1697779 1.15 4278190335
-6.7539225 -6.1314754 1.15 4278190335
-6.7217832 -6.0931735 1.15 4278190335
-6.6896439 -6.0548711 1.15 4278190335
-6.6575046 -6.0165691 1.15 4278190335
-6.6253653 -5.9782667 1.15 4278190335
-6.5932255 -5.9399643 1.15 4278190335
-6.5610867 -5.9016623 1.15 4278190335
-6.5289469 -5.8633599 1.15 4278190335
-6.4968076 -5.825058 1.15 4278190335
-6.4646683 -5.7867556 1.15 4278190335
-6.4325285 -5.7484531 1.15 4278190335
-6.4003897 -5.7101512 1.15 4278190335
-6.3682499 -5.6718488 1.15 4278190335
-6.3361111 -5.6335468 1.15 4278190335
-6.3039713 -5.5952444 1.15 4278190335
-6.2718315 -5.556942 1.15 4278190335
-6.2396927 -5.51864 1.15 4278190335
-6.2075529 -5.4803376 1.15 4278190335
-6.1754141 -5.4420357 1.15 4278190335
-7.4288492 -6.9358225 1.2 4278190335
-7.3967104 -6.8975201 1.2 4278190335
-7.3645706 -6.8592176 1.2 4278190335
-7.3324313 -6.8209152 1.2 4278190335
-7.300292 -6.7826138 1.2 4278190335
-7.2681527 -6.7443113 1.2 4278190335
-7.2360134 -6.7060089 1.2 4278190335
-7.2038736 -6.6677065 1.2 4278190335
-7.1717348 -6.6294041 1.2 4278190335
-7.139595 -6.5911026 1.2 4278190335
-7.1074557 -6.5528002 1.2 4278190335
-7.0753164 -6.5144978 1.2 4278190335
-7.0431771 -6.4761953 1.2 4278190335
-7.0110378 -6.4378929 1.2 4278190335
-6.978898 -6.3995914 1.2 4278190335
-6.9467587 -6.361289 1.2 4278190335
-6.9146194 -6.3229866 1.2 4278190335
-6.8824801 -6.2846842 1.2 4278190335
-6.8503408 -6.2463822 1.2 4278190335
-6.8182015 -6.2080803 1.2 4278190335
-6.7860622 -6.1697779 1.2 4278190335
-6.7539225 -6.1314754 1.2 4278190335
-6.7217832 -6.0931735 1.2 4278190335
-6.6896439 -6.0548711 1.2 4278190335
-6.6575046 -6.0165691 1.2 4278190335
-6.6253653 -5.9782667 1.2 4278190335
-6.5932255 -5.9399643 1.2 4278190335
-6.5610867 -5.9016623 1.2 4278190335
-6.5289469 -5.8633599 1.2 4278190335
-6.4968076 -5.825058 1.2 4278190335
-6.4646683 -5.7867556 1.2 4278190335
-6.4325285 -5.7484531 1.2 4278190335
-6.4003897 -5.7101512 1.2 4278190335
-6.3682499 -5.6718488 1.2 4278190335
-6.3361111 -5.6335468 1.2 4278190335
-6.3039713 -5.5952444 1.2 4278190335
-6.2718315 -5.556942 1.2 4278190335
-6.2396927 -5.51864 1.2 4278190335
-6.2075529 -5.4803376 1.2 4278190335
-6.1754141 -5.4420357 1.2 4278190335
-7.4288492 -6.9358225 1.25 4278190335
-7.3967104 -6.8975201 1.25 4278190335
-7.3645706 -6.8592176 1.25 4278190335
-7.3324313 -6.8209152 1.25 4278190335
-7.300292 -6.7826138 1.25 4278190335
-7.2681527 -6.7443113 1.25 4278190335
-7.2360134 -6.7060089 1.25 4278190335
-7.2038736 -6.6677065 1.25 4278190335
-7.1717348 -6.6294041 1.25 4278190335
-7.139595 -6.5911026 1.25 4278190335
-7.1074557 -6.5528002 1.25 4278190335
-7.0753164 -6.5144978 1.25 4278190335
-7.0431771 -6.4761953 1.25 4278190335
-7.0110378 -6.4378929 1.25 4278190335
-6.978898 -6.3995914 1.25 4278190335
-6.9467587 -6.361289 1.25 4278190335
-6.9146194 -6.3229866 1.25 4278190335
-6.8824801 -6.2846842 1.25 4278190335
-6.8503408 -6.2463822 1.25 4278190335
-6.8182015 -6.2080803 1.25 4278190335
-6.7860622 -6.1697779 1.25 4278190335
-6.7539225 -6.1314754 1.25 4278190335
-6.7217832 -6.0931735 1.25 4278190335
-6.6896439 -6.0548711 1.25 4278190335
-6.6575046 -6.0165691 1.25 4278190335
-6.6253653 -5.9782667 1.25 4278190335
-6.5932255 -5.9399643 1.25 4278190335
-6.5610867 -5.9016623 1.25 4278190335
-6.5289469 -5.8633599 1.25 4278190335
-6.4968076 -5.825058 1.25 4278190335
-6.4646683 -5.7867556 1.25 4278190335
-6.4325285 -5.7484531 1.25 4278190335
-6.4003897 -5.7101512 1.25 4278190335
-6.3682499 -5.6718488 1.25 4278190335
-6.3361111 -5.6335468 1.25 4278190335
-6.3039713 -5.5952444 1.25 4278190335
-6.2718315 -5.556942 1.25 4278190335
-6.2396927 -5.51864 1.25 4278190335
-6.2075529 -5.4803376 1.25 4278190335
-6.1754141 -5.4420357 1.25 4278190335
-7.4288492 -6.9358225 1.3 4278190335
-7.3967104 -6.8975201 1.3 4278190335
-7.3645706 -6.8592176 1.3 4278190335
-7.3324313 -6.8209152 1.3 4278190335
-7.300292 -6.7826138 1.3 4278190335
-7.2681527 -6.7443113 1.3 4278190335
-7.2360134 -6.7060089 1.3 4278190335
-7.2038736 -6.6677065 1.3 4278190335
-7.1717348 -6.6294041 1.3 4278190335
-7.139595 -6.5911026 1.3 4278190335
-7.1074557 -6.5528002 1.3 4278190335
-7.0753164 -6.5144978 1.3 4278190335
-7.0431771 -6.4761953 1.3 4278190335
-7.0110378 -6.4378929 1.3 4278190335
-6.978898 -6.3995914 1.3 4278190335
-6.9467587 -6.361289 1.3 4278190335
-6.9146194 -6.3229866 1.3 4278190335
-6.8824801 -6.2846842 1.3 4278190335
-6.8503408 -6.2463822 1.3 4278190335
-6.8182015 -6.2080803 1.3 4278190335
-6.7860622 -6.1697779 1.3 4278190335
-6.7539225 -6.1314754 1.3 4278190335
-6.7217832 -6.0931735 1.3 4278190335
-6.6896439 -6.0548711 1.3 4278190335
-6.6575046 -6.0165691 1.3 4278190335
-6.6253653 -5.9782667 1.3 4278190335
-6.5932255 -5.9399643 1.3 4278190335
-6.5610867 -5.9016623 1.3 4278190335
-6.5289469 -5.8633599 1.3 4278190335
-6.4968076 -5.825058 1.3 4278190335
-6.4646683 -5.7867556 1.3 4278190335
-6.4325285 -5.7484531 1.3 4278190335
-6.4003897 -5.7101512 1.3 4278190335
-6.3682499 -5.6718488 1.3 4278190335
-6.3361111 -5.6335468 1.3 4278190335
-6.3039713 -5.5952444 1.3 4278190335
-6.2718315 -5.556942 1.3 4278190335
-6.2396927 -5.51864 1.3 4278190335
-6.2075529 -5.4803376 1.3 4278190335
-6.1754141 -5.4420357 1.3 4278190335
-7.4288492 -6.9358225 1.35 4278190335
-7.3967104 -6.8975201 1.35 4278190335
-7.3645706 -6.8592176 1.35 4278190335
-7.3324313 -6.8209152 1.35 4278190335
-7.300292 -6.7826138 1.35 4278190335
-7.2681527 -6.7443113 1.35 4278190335
-7.2360134 -6.7060089 1.35 4278190335
-7.2038736 -6.6677065 1.35 4278190335
-7.1717348 -6.6294041 1.35 4278190335
-7.139595 -6.5911026 1.35 4278190335
-7.1074557 -6.5528002 1.35 4278190335
-7.0753164 -6.5144978 1.35 4278190335
-7.0431771 -6.4761953 1.35 4278190335
-7.0110378 -6.4378929 1.35 4278190335
-6.978898 -6.3995914 1.35 4278190335
-6.9467587 -6.361289 1.35 4278190335
-6.9146194 -6.3229866 1.35 4278190335
-6.8824801 -6.2846842 1.35 4278190335
-6.8503408 -6.2463822 1.35 4278190335
-6.8182015 -6.2080803 1.35 4278190335
-6.7860622 -6.1697779 1.35 4278190335
-6.7539225 -6.1314754 1.35 4278190335
-6.7217832 -6.0931735 1.35 4278190335
-6.6896439 -6.0548711 1.35 4278190335
-6.6575046 -6.0165691 1.35 4278190335
-6.6253653 -5.9782667 1.35 4278190335
-6.5932255 -5.9399643 1.35 4278190335
-6.5610867 -5.9016623 1.35 4278190335
-6.5289469 -5.8633599 1.35 4278190335
-6.4968076 -5.825058 1.35 4278190335
-6.4646683 -5.7867556 1.35 4278190335
-6.4325285 -5.7484531 1.35 4278190335
-6.4003897 -5.7101512 1.35 4278190335
-6.3682499 -5.6718488 1.35 4278190335
-6.3361111 -5.6335468 1.35 4278190335
-6.3039713 -5.5952444 1.35 4278190335
-6.2718315 -5.556942 1.35 4278190335
-6.2396927 -5.51864 1.35 4278190335
-6.2075529 -5.4803376 1.35 4278190335
-6.1754141 -5.4420357 1.35 4278190335
-7.4288492 -6.9358225 1.4 4278190335
-7.3967104 -6.8975201 1.4 4278190335
-7.3645706 -6.8592176 1.4 4278190335
-7.3324313 -6.8209152 1.4 4278190335
-7.300292 -6.7826138 1.4 4278190335
-7.2681527 -6.7443113 1.4 4278190335
-7.2360134 -6.7060089 1.4 4278190335
-7.2038736 -6.6677065 1.4 4278190335
-7.1717348 -6.6294041 1.4 4278190335
-7.139595 -6.5911026 1.4 4278190335
-7.1074557 -6.5528002 1.4 4278190335
-7.0753164 -6.5144978 1.4 4278190335
-7.0431771 -6.4761953 1.4 4278190335
-7.0110378 -6.4378929 1.4 4278190335
-6.978898 -6.3995914 1.4 4278190335
-6.9467587 -6.361289 1.4 4278190335
-6.9146194 -6.3229866 1.4 4278190335
-6.8824801 -6.2846842 1.4 4278190335
-6.8503408 -6.2463822 1.4 4278190335
-6.8182015 -6.2080803 1.4 4278190335
-6.7860622 -6.1697779 1.4 4278190335
-6.7539225 -6.1314754 1.4 4278190335
-6.7217832 -6.0931735 1.4 4278190335
-6.6896439 -6.0548711 1.4 4278190335
-6.6575046 -6.0165691 1.4 4278190335
-6.6253653 -5.9782667 1.4 4278190335
-6.5932255 -5.9399643 1.4 4278190335
-6.5610867 -5.9016623 1.4 4278190335
-6.5289469 -5.8633599 1.4 4278190335
-6.4968076 -5.825058 1.4 4278190335
-6.4646683 -5.7867556 1.4 4278190335
-6.4325285 -5.7484531 1.4 4278190335
-6.4003897 -5.7101512 1.4 4278190335
-6.3682499 -5.6718488 1.4 4278190335
-6.3361111 -5.6335468 1.4 4278190335
-6.3039713 -5.5952444 1.4 4278190335
-6.2718315 -5.556942 1.4 4278190335
-6.2396927 -5.51864 1.4 4278190335
-6.2075529 -5.4803376 1.4 4278190335
-6.1754141 -5.4420357 1.4 4278190335
-7.4288492 -6.9358225 1.45 4278190335
-7.3967104 -6.8975201 1.45 4278190335
-7.3645706 -6.8592176 1.45 4278190335
-7.3324313 -6.8209152 1.45 4278190335
-7.300292 -6.7826138 1.45 4278190335
-7.2681527 -6.7443113 1.45 4278190335
-7.2360134 -6.7060089 1.45 4278190335
-7.2038736 -6.6677065 1.45 4278190335
-7.1717348 -6.6294041 1.45 4278190335
-7.139595 -6.5911026 1.45 4278190335
-7.1074557 -6.5528002 1.45 4278190335
-7.0753164 -6.5144978 1.45 4278190335
-7.0431771 -6.4761953 1.45 4278190335
-7.0110378 -6.4378929 1.45 4278190335
-6.978898 -6.3995914 1.45 4278190335
-6.9467587 -6.361289 1.45 4278190335
-6.9146194 -6.3229866 1.45 4278190335
-6.8824801 -6.2846842 1.45 4278190335
-6.8503408 -6.2463822 1.45 4278190335
-6.8182015 -6.2080803 1.45 4278190335
-6.7860622 -6.1697779 1.45 4278190335
-6.7539225 -6.1314754 1.45 4278190335
-6.7217832 -6.0931735 1.45 4278190335
-6.6896439 -6.0548711 1.45 4278190335
-6.6575046 -6.0165691 1.45 4278190335
-6.6253653 -5.9782667 1.45 4278190335
-6.5932255 -5.9399643 1.45 4278190335
-6.5610867 -5.9016623 1.45 4278190335
-6.5289469 -5.8633599 1.45 4278190335
-6.4968076 -5.825058 1.45 4278190335
-6.4646683 -5.7867556 1.45 4278190335
-6.4325285 -5.7484531 1.45 4278190335
-6.4003897 -5.7101512 1.45 4278190335
-6.3682499 -5.6718488 1.45 4278190335
-6.3361111 -5.6335468 1.45 4278190335
-6.3039713 -5.5952444 1.45 4278190335
-6.2718315 -5.556942 1.45 4278190335
-6.2396927 -5.51864 1.45 4278190335
-6.2075529 -5.4803376 1.45 4278190335
-6.1754141 -5.4420357 1.45 4278190335
-7.4288492 -6.9358225 1.5 4278190335
-7.3967104 -6.8975201 1.5 4278190335
-7.3645706 -6.8592176 1.5 4278190335
-7.3324313 -6.8209152 1.5 4278190335
-7.300292 -6.7826138 1.5 4278190335
-7.2681527 -6.7443113 1.5 4278190335
-7.2360134 -6.7060089 1.5 4278190335
-7.2038736 -6.6677065 1.5 4278190335
-7.1717348 -6.6294041 1.5 4278190335
-7.139595 -6.5911026 1.5 4278190335
-7.1074557 -6.5528002 1.5 4278190335
-7.0753164 -6.5144978 1.5 4278190335
-7.0431771 -6.4761953 1.5 4278190335
-7.0110378 -6.4378929 1.5 4278190335
-6.978898 -6.3995914 1.5 4278190335
-6.9467587 -6.361289 1.5 4278190335
-6.9146194 -6.3229866 1.5 4278190335
-6.8824801 -6.2846842 1.5 4278190335
-6.8503408 -6.2463822 1.5 4278190335
-6.8182015 -6.2080803 1.5 4278190335
-6.7860622 -6.1697779 1.5 4278190335
-6.7539225 -6.1314754 1.5 4278190335
-6.7217832 -6.0931735 1.5 4278190335
-6.6896439 -6.0548711 1.5 4278190335
-6.6575046 -6.0165691 1.5 4278190335
-6.6253653 -5.9782667 1.5 4278190335
-6.5932255 -5.9399643 1.5 4278190335
-6.5610867 -5.9016623 1.5 4278190335
-6.5289469 -5.8633599 1.5 4278190335
-6.4968076 -5.825058 1.5 4278190335
-6.4646683 -5.7867556 1.5 4278190335
-6.4325285 -5.7484531 1.5 4278190335
-6.4003897 -5.7101512 1.5 4278190335
-6.3682499 -5.6718488 1.5 4278190335
-6.3361111 -5.6335468 1.5 4278190335
-6.3039713 -5.5952444 1.5 4278190335
-6.2718315 -5.556942 1.5 4278190335
-6.2396927 -5.51864 1.5 4278190335
-6.2075529 -5.4803376 1.5 4278190335
-6.1754141 -5.4420357 1.5 4278190335
-7.4288492 -6.9358225 1.55 4278190335
-7.3967104 -6.8975201 1.55 4278190335
-7.3645706 -6.8592176 1.55 4278190335
-7.3324313 -6.8209152 1.55 4278190335
-7.300292 -6.7826138 1.55 4278190335
-7.2681527 -6.7443113 1.55 4278190335
-7.2360134 -6.7060089 1.55 4278190335
-7.2038736 -6.6677065 1.55 4278190335
-7.1717348 -6.6294041 1.55 4278190335
